5.226460864456990763e+00 9.000000000000000000e+00 3.140295720659196377e+00
5.226460864456990763e+00 9.000000000000000000e+00 4.178838934749364853e+00
5.226460864456990763e+00 9.000000000000000000e+00 5.217382148839533329e+00
5.226460864456990763e+00 9.000000000000000000e+00 6.255925362929701805e+00
5.226460864456990763e+00 9.000000000000000000e+00 1.871844393201172352e+01
5.226460864456990763e+00 9.000000000000000000e+00 1.975698714610189199e+01
5.226460864456990763e+00 9.000000000000000000e+00 2.079553036019206047e+01
5.226460864456990763e+00 9.000000000000000000e+00 2.183407357428222895e+01
6.265537949278950691e+00 9.000000000000000000e+00 3.140295720659196377e+00
6.265537949278950691e+00 9.000000000000000000e+00 4.178838934749364853e+00
6.265537949278950691e+00 9.000000000000000000e+00 5.217382148839533329e+00
6.265537949278950691e+00 9.000000000000000000e+00 1.975698714610189199e+01
6.265537949278950691e+00 9.000000000000000000e+00 2.079553036019206047e+01
6.265537949278950691e+00 9.000000000000000000e+00 2.183407357428222895e+01
7.304615034100909732e+00 9.000000000000000000e+00 2.101752506569027901e+00
7.304615034100909732e+00 9.000000000000000000e+00 3.140295720659196377e+00
7.304615034100909732e+00 9.000000000000000000e+00 4.178838934749364853e+00
7.304615034100909732e+00 9.000000000000000000e+00 2.079553036019206047e+01
7.304615034100909732e+00 9.000000000000000000e+00 2.183407357428222895e+01
7.304615034100909732e+00 9.000000000000000000e+00 2.287261678837239742e+01
8.343692118922868772e+00 9.000000000000000000e+00 2.101752506569027901e+00
8.343692118922868772e+00 9.000000000000000000e+00 3.140295720659196377e+00
8.343692118922868772e+00 9.000000000000000000e+00 2.183407357428222895e+01
8.343692118922868772e+00 9.000000000000000000e+00 2.287261678837239742e+01
9.382769203744828701e+00 9.000000000000000000e+00 1.063209292478859425e+00
9.382769203744828701e+00 9.000000000000000000e+00 2.101752506569027901e+00
9.382769203744828701e+00 9.000000000000000000e+00 3.140295720659196377e+00
9.382769203744828701e+00 9.000000000000000000e+00 2.183407357428222895e+01
9.382769203744828701e+00 9.000000000000000000e+00 2.287261678837239742e+01
9.382769203744828701e+00 9.000000000000000000e+00 2.391116000246256590e+01
1.042184628856678685e+01 9.000000000000000000e+00 1.063209292478859425e+00
1.042184628856678685e+01 9.000000000000000000e+00 2.101752506569027901e+00
1.042184628856678685e+01 9.000000000000000000e+00 3.140295720659196377e+00
1.042184628856678685e+01 9.000000000000000000e+00 2.183407357428222895e+01
1.042184628856678685e+01 9.000000000000000000e+00 2.287261678837239742e+01
1.042184628856678685e+01 9.000000000000000000e+00 2.391116000246256590e+01
1.146092337338874678e+01 9.000000000000000000e+00 1.063209292478859425e+00
1.146092337338874678e+01 9.000000000000000000e+00 2.101752506569027901e+00
1.146092337338874678e+01 9.000000000000000000e+00 3.140295720659196377e+00
1.146092337338874678e+01 9.000000000000000000e+00 2.183407357428222895e+01
1.146092337338874678e+01 9.000000000000000000e+00 2.287261678837239742e+01
1.146092337338874678e+01 9.000000000000000000e+00 2.391116000246256590e+01
1.250000045821070671e+01 9.000000000000000000e+00 1.063209292478859425e+00
1.250000045821070671e+01 9.000000000000000000e+00 2.101752506569027901e+00
1.250000045821070671e+01 9.000000000000000000e+00 3.140295720659196377e+00
1.250000045821070671e+01 9.000000000000000000e+00 2.287261678837239742e+01
1.250000045821070671e+01 9.000000000000000000e+00 2.391116000246256590e+01
1.353907754303266486e+01 9.000000000000000000e+00 1.063209292478859425e+00
1.353907754303266486e+01 9.000000000000000000e+00 2.101752506569027901e+00
1.353907754303266486e+01 9.000000000000000000e+00 3.140295720659196377e+00
1.353907754303266486e+01 9.000000000000000000e+00 2.183407357428222895e+01
1.353907754303266486e+01 9.000000000000000000e+00 2.287261678837239742e+01
1.353907754303266486e+01 9.000000000000000000e+00 2.391116000246256590e+01
1.457815462785462479e+01 9.000000000000000000e+00 1.063209292478859425e+00
1.457815462785462479e+01 9.000000000000000000e+00 2.101752506569027901e+00
1.457815462785462479e+01 9.000000000000000000e+00 3.140295720659196377e+00
1.457815462785462479e+01 9.000000000000000000e+00 2.183407357428222895e+01
1.457815462785462479e+01 9.000000000000000000e+00 2.287261678837239742e+01
1.457815462785462479e+01 9.000000000000000000e+00 2.391116000246256590e+01
1.561723171267658294e+01 9.000000000000000000e+00 1.063209292478859425e+00
1.561723171267658294e+01 9.000000000000000000e+00 2.101752506569027901e+00
1.561723171267658294e+01 9.000000000000000000e+00 3.140295720659196377e+00
1.561723171267658294e+01 9.000000000000000000e+00 2.183407357428222895e+01
1.561723171267658294e+01 9.000000000000000000e+00 2.287261678837239742e+01
1.561723171267658294e+01 9.000000000000000000e+00 2.391116000246256590e+01
1.665630879749854287e+01 9.000000000000000000e+00 2.101752506569027901e+00
1.665630879749854287e+01 9.000000000000000000e+00 3.140295720659196377e+00
1.665630879749854287e+01 9.000000000000000000e+00 2.183407357428222895e+01
1.665630879749854287e+01 9.000000000000000000e+00 2.287261678837239742e+01
1.769538588232050103e+01 9.000000000000000000e+00 2.101752506569027901e+00
1.769538588232050103e+01 9.000000000000000000e+00 3.140295720659196377e+00
1.769538588232050103e+01 9.000000000000000000e+00 4.178838934749364853e+00
1.769538588232050103e+01 9.000000000000000000e+00 2.079553036019206047e+01
1.769538588232050103e+01 9.000000000000000000e+00 2.183407357428222895e+01
1.769538588232050103e+01 9.000000000000000000e+00 2.287261678837239742e+01
1.873446296714246273e+01 9.000000000000000000e+00 3.140295720659196377e+00
1.873446296714246273e+01 9.000000000000000000e+00 4.178838934749364853e+00
1.873446296714246273e+01 9.000000000000000000e+00 5.217382148839533329e+00
1.873446296714246273e+01 9.000000000000000000e+00 1.975698714610189199e+01
1.873446296714246273e+01 9.000000000000000000e+00 2.079553036019206047e+01
1.873446296714246273e+01 9.000000000000000000e+00 2.183407357428222895e+01
1.977354005196442088e+01 9.000000000000000000e+00 3.140295720659196377e+00
1.977354005196442088e+01 9.000000000000000000e+00 4.178838934749364853e+00
1.977354005196442088e+01 9.000000000000000000e+00 5.217382148839533329e+00
1.977354005196442088e+01 9.000000000000000000e+00 6.255925362929701805e+00
1.977354005196442088e+01 9.000000000000000000e+00 1.871844393201172352e+01
1.977354005196442088e+01 9.000000000000000000e+00 1.975698714610189199e+01
1.977354005196442088e+01 9.000000000000000000e+00 2.079553036019206047e+01
1.977354005196442088e+01 9.000000000000000000e+00 2.183407357428222895e+01
2.081261713678637904e+01 9.000000000000000000e+00 4.178838934749364853e+00
2.081261713678637904e+01 9.000000000000000000e+00 5.217382148839533329e+00
2.081261713678637904e+01 9.000000000000000000e+00 6.255925362929701805e+00
2.081261713678637904e+01 9.000000000000000000e+00 7.294468577019870281e+00
2.081261713678637904e+01 9.000000000000000000e+00 1.767990071792155504e+01
2.081261713678637904e+01 9.000000000000000000e+00 1.871844393201172352e+01
2.081261713678637904e+01 9.000000000000000000e+00 1.975698714610189199e+01
2.081261713678637904e+01 9.000000000000000000e+00 2.079553036019206047e+01
2.185169422160834074e+01 9.000000000000000000e+00 5.217382148839533329e+00
2.185169422160834074e+01 9.000000000000000000e+00 6.255925362929701805e+00
2.185169422160834074e+01 9.000000000000000000e+00 7.294468577019870281e+00
2.185169422160834074e+01 9.000000000000000000e+00 8.333011791110038757e+00
2.185169422160834074e+01 9.000000000000000000e+00 9.371555005200207233e+00
2.185169422160834074e+01 9.000000000000000000e+00 1.041009821929037571e+01
2.185169422160834074e+01 9.000000000000000000e+00 1.144864143338054419e+01
2.185169422160834074e+01 9.000000000000000000e+00 1.248718464747071266e+01
2.185169422160834074e+01 9.000000000000000000e+00 1.352572786156088114e+01
2.185169422160834074e+01 9.000000000000000000e+00 1.456427107565104961e+01
2.185169422160834074e+01 9.000000000000000000e+00 1.560281428974121809e+01
2.185169422160834074e+01 9.000000000000000000e+00 1.664135750383138657e+01
2.185169422160834074e+01 9.000000000000000000e+00 1.767990071792155504e+01
2.185169422160834074e+01 9.000000000000000000e+00 1.871844393201172352e+01
2.185169422160834074e+01 9.000000000000000000e+00 1.975698714610189199e+01
2.289077130643029889e+01 9.000000000000000000e+00 7.294468577019870281e+00
2.289077130643029889e+01 9.000000000000000000e+00 8.333011791110038757e+00
2.289077130643029889e+01 9.000000000000000000e+00 9.371555005200207233e+00
2.289077130643029889e+01 9.000000000000000000e+00 1.041009821929037571e+01
2.289077130643029889e+01 9.000000000000000000e+00 1.144864143338054419e+01
2.289077130643029889e+01 9.000000000000000000e+00 1.248718464747071266e+01
2.289077130643029889e+01 9.000000000000000000e+00 1.352572786156088114e+01
2.289077130643029889e+01 9.000000000000000000e+00 1.456427107565104961e+01
2.289077130643029889e+01 9.000000000000000000e+00 1.560281428974121809e+01
2.289077130643029889e+01 9.000000000000000000e+00 1.664135750383138657e+01
2.289077130643029889e+01 9.000000000000000000e+00 1.767990071792155504e+01
2.392984839125225704e+01 9.000000000000000000e+00 9.371555005200207233e+00
2.392984839125225704e+01 9.000000000000000000e+00 1.041009821929037571e+01
2.392984839125225704e+01 9.000000000000000000e+00 1.144864143338054419e+01
2.392984839125225704e+01 9.000000000000000000e+00 1.248718464747071266e+01
2.392984839125225704e+01 9.000000000000000000e+00 1.352572786156088114e+01
2.392984839125225704e+01 9.000000000000000000e+00 1.456427107565104961e+01
2.392984839125225704e+01 9.000000000000000000e+00 1.560281428974121809e+01
1.070152525169153934e+00 1.000000000000000000e+01 8.333011791110038757e+00
1.070152525169153934e+00 1.000000000000000000e+01 9.371555005200207233e+00
1.070152525169153934e+00 1.000000000000000000e+01 1.041009821929037571e+01
1.070152525169153934e+00 1.000000000000000000e+01 1.144864143338054419e+01
1.070152525169153934e+00 1.000000000000000000e+01 1.248718464747071266e+01
1.070152525169153934e+00 1.000000000000000000e+01 1.352572786156088114e+01
1.070152525169153934e+00 1.000000000000000000e+01 1.456427107565104961e+01
1.070152525169153934e+00 1.000000000000000000e+01 1.560281428974121809e+01
1.070152525169153934e+00 1.000000000000000000e+01 1.664135750383138657e+01
2.109229609991113197e+00 1.000000000000000000e+01 6.255925362929701805e+00
2.109229609991113197e+00 1.000000000000000000e+01 7.294468577019870281e+00
2.109229609991113197e+00 1.000000000000000000e+01 8.333011791110038757e+00
2.109229609991113197e+00 1.000000000000000000e+01 9.371555005200207233e+00
2.109229609991113197e+00 1.000000000000000000e+01 1.041009821929037571e+01
2.109229609991113197e+00 1.000000000000000000e+01 1.144864143338054419e+01
2.109229609991113197e+00 1.000000000000000000e+01 1.248718464747071266e+01
2.109229609991113197e+00 1.000000000000000000e+01 1.352572786156088114e+01
2.109229609991113197e+00 1.000000000000000000e+01 1.456427107565104961e+01
2.109229609991113197e+00 1.000000000000000000e+01 1.560281428974121809e+01
2.109229609991113197e+00 1.000000000000000000e+01 1.664135750383138657e+01
2.109229609991113197e+00 1.000000000000000000e+01 1.767990071792155504e+01
2.109229609991113197e+00 1.000000000000000000e+01 1.871844393201172352e+01
3.148306694813072681e+00 1.000000000000000000e+01 5.217382148839533329e+00
3.148306694813072681e+00 1.000000000000000000e+01 6.255925362929701805e+00
3.148306694813072681e+00 1.000000000000000000e+01 7.294468577019870281e+00
3.148306694813072681e+00 1.000000000000000000e+01 8.333011791110038757e+00
3.148306694813072681e+00 1.000000000000000000e+01 9.371555005200207233e+00
3.148306694813072681e+00 1.000000000000000000e+01 1.560281428974121809e+01
3.148306694813072681e+00 1.000000000000000000e+01 1.664135750383138657e+01
3.148306694813072681e+00 1.000000000000000000e+01 1.767990071792155504e+01
3.148306694813072681e+00 1.000000000000000000e+01 1.871844393201172352e+01
3.148306694813072681e+00 1.000000000000000000e+01 1.975698714610189199e+01
4.187383779635031722e+00 1.000000000000000000e+01 4.178838934749364853e+00
4.187383779635031722e+00 1.000000000000000000e+01 5.217382148839533329e+00
4.187383779635031722e+00 1.000000000000000000e+01 6.255925362929701805e+00
4.187383779635031722e+00 1.000000000000000000e+01 7.294468577019870281e+00
4.187383779635031722e+00 1.000000000000000000e+01 1.767990071792155504e+01
4.187383779635031722e+00 1.000000000000000000e+01 1.871844393201172352e+01
4.187383779635031722e+00 1.000000000000000000e+01 1.975698714610189199e+01
4.187383779635031722e+00 1.000000000000000000e+01 2.079553036019206047e+01
5.226460864456990763e+00 1.000000000000000000e+01 3.140295720659196377e+00
5.226460864456990763e+00 1.000000000000000000e+01 4.178838934749364853e+00
5.226460864456990763e+00 1.000000000000000000e+01 5.217382148839533329e+00
5.226460864456990763e+00 1.000000000000000000e+01 1.975698714610189199e+01
5.226460864456990763e+00 1.000000000000000000e+01 2.079553036019206047e+01
5.226460864456990763e+00 1.000000000000000000e+01 2.183407357428222895e+01
6.265537949278950691e+00 1.000000000000000000e+01 2.101752506569027901e+00
6.265537949278950691e+00 1.000000000000000000e+01 3.140295720659196377e+00
6.265537949278950691e+00 1.000000000000000000e+01 4.178838934749364853e+00
6.265537949278950691e+00 1.000000000000000000e+01 2.079553036019206047e+01
6.265537949278950691e+00 1.000000000000000000e+01 2.183407357428222895e+01
6.265537949278950691e+00 1.000000000000000000e+01 2.287261678837239742e+01
7.304615034100909732e+00 1.000000000000000000e+01 2.101752506569027901e+00
7.304615034100909732e+00 1.000000000000000000e+01 3.140295720659196377e+00
7.304615034100909732e+00 1.000000000000000000e+01 4.178838934749364853e+00
7.304615034100909732e+00 1.000000000000000000e+01 2.079553036019206047e+01
7.304615034100909732e+00 1.000000000000000000e+01 2.183407357428222895e+01
7.304615034100909732e+00 1.000000000000000000e+01 2.287261678837239742e+01
8.343692118922868772e+00 1.000000000000000000e+01 1.063209292478859425e+00
8.343692118922868772e+00 1.000000000000000000e+01 2.101752506569027901e+00
8.343692118922868772e+00 1.000000000000000000e+01 3.140295720659196377e+00
8.343692118922868772e+00 1.000000000000000000e+01 2.183407357428222895e+01
8.343692118922868772e+00 1.000000000000000000e+01 2.287261678837239742e+01
8.343692118922868772e+00 1.000000000000000000e+01 2.391116000246256590e+01
9.382769203744828701e+00 1.000000000000000000e+01 1.063209292478859425e+00
9.382769203744828701e+00 1.000000000000000000e+01 2.101752506569027901e+00
9.382769203744828701e+00 1.000000000000000000e+01 3.140295720659196377e+00
9.382769203744828701e+00 1.000000000000000000e+01 2.183407357428222895e+01
9.382769203744828701e+00 1.000000000000000000e+01 2.287261678837239742e+01
9.382769203744828701e+00 1.000000000000000000e+01 2.391116000246256590e+01
1.042184628856678685e+01 1.000000000000000000e+01 1.063209292478859425e+00
1.042184628856678685e+01 1.000000000000000000e+01 2.101752506569027901e+00
1.042184628856678685e+01 1.000000000000000000e+01 2.287261678837239742e+01
1.042184628856678685e+01 1.000000000000000000e+01 2.391116000246256590e+01
1.146092337338874678e+01 1.000000000000000000e+01 1.063209292478859425e+00
1.146092337338874678e+01 1.000000000000000000e+01 2.101752506569027901e+00
1.146092337338874678e+01 1.000000000000000000e+01 2.287261678837239742e+01
1.146092337338874678e+01 1.000000000000000000e+01 2.391116000246256590e+01
1.250000045821070671e+01 1.000000000000000000e+01 1.063209292478859425e+00
1.250000045821070671e+01 1.000000000000000000e+01 2.101752506569027901e+00
1.250000045821070671e+01 1.000000000000000000e+01 2.287261678837239742e+01
1.250000045821070671e+01 1.000000000000000000e+01 2.391116000246256590e+01
1.353907754303266486e+01 1.000000000000000000e+01 1.063209292478859425e+00
1.353907754303266486e+01 1.000000000000000000e+01 2.101752506569027901e+00
1.353907754303266486e+01 1.000000000000000000e+01 2.287261678837239742e+01
1.353907754303266486e+01 1.000000000000000000e+01 2.391116000246256590e+01
1.457815462785462479e+01 1.000000000000000000e+01 1.063209292478859425e+00
1.457815462785462479e+01 1.000000000000000000e+01 2.101752506569027901e+00
1.457815462785462479e+01 1.000000000000000000e+01 2.287261678837239742e+01
1.457815462785462479e+01 1.000000000000000000e+01 2.391116000246256590e+01
1.561723171267658294e+01 1.000000000000000000e+01 1.063209292478859425e+00
1.561723171267658294e+01 1.000000000000000000e+01 2.101752506569027901e+00
1.561723171267658294e+01 1.000000000000000000e+01 3.140295720659196377e+00
1.561723171267658294e+01 1.000000000000000000e+01 2.183407357428222895e+01
1.561723171267658294e+01 1.000000000000000000e+01 2.287261678837239742e+01
1.561723171267658294e+01 1.000000000000000000e+01 2.391116000246256590e+01
1.665630879749854287e+01 1.000000000000000000e+01 1.063209292478859425e+00
1.665630879749854287e+01 1.000000000000000000e+01 2.101752506569027901e+00
1.665630879749854287e+01 1.000000000000000000e+01 3.140295720659196377e+00
1.665630879749854287e+01 1.000000000000000000e+01 2.183407357428222895e+01
1.665630879749854287e+01 1.000000000000000000e+01 2.287261678837239742e+01
1.665630879749854287e+01 1.000000000000000000e+01 2.391116000246256590e+01
1.769538588232050103e+01 1.000000000000000000e+01 2.101752506569027901e+00
1.769538588232050103e+01 1.000000000000000000e+01 3.140295720659196377e+00
1.769538588232050103e+01 1.000000000000000000e+01 4.178838934749364853e+00
1.769538588232050103e+01 1.000000000000000000e+01 2.079553036019206047e+01
1.769538588232050103e+01 1.000000000000000000e+01 2.183407357428222895e+01
1.769538588232050103e+01 1.000000000000000000e+01 2.287261678837239742e+01
1.873446296714246273e+01 1.000000000000000000e+01 2.101752506569027901e+00
1.873446296714246273e+01 1.000000000000000000e+01 3.140295720659196377e+00
1.873446296714246273e+01 1.000000000000000000e+01 4.178838934749364853e+00
1.873446296714246273e+01 1.000000000000000000e+01 2.079553036019206047e+01
1.873446296714246273e+01 1.000000000000000000e+01 2.183407357428222895e+01
1.873446296714246273e+01 1.000000000000000000e+01 2.287261678837239742e+01
1.977354005196442088e+01 1.000000000000000000e+01 3.140295720659196377e+00
1.977354005196442088e+01 1.000000000000000000e+01 4.178838934749364853e+00
1.977354005196442088e+01 1.000000000000000000e+01 5.217382148839533329e+00
1.977354005196442088e+01 1.000000000000000000e+01 1.975698714610189199e+01
1.977354005196442088e+01 1.000000000000000000e+01 2.079553036019206047e+01
1.977354005196442088e+01 1.000000000000000000e+01 2.183407357428222895e+01
2.081261713678637904e+01 1.000000000000000000e+01 4.178838934749364853e+00
2.081261713678637904e+01 1.000000000000000000e+01 5.217382148839533329e+00
2.081261713678637904e+01 1.000000000000000000e+01 6.255925362929701805e+00
2.081261713678637904e+01 1.000000000000000000e+01 7.294468577019870281e+00
2.081261713678637904e+01 1.000000000000000000e+01 1.767990071792155504e+01
2.081261713678637904e+01 1.000000000000000000e+01 1.871844393201172352e+01
2.081261713678637904e+01 1.000000000000000000e+01 1.975698714610189199e+01
2.081261713678637904e+01 1.000000000000000000e+01 2.079553036019206047e+01
2.185169422160834074e+01 1.000000000000000000e+01 5.217382148839533329e+00
2.185169422160834074e+01 1.000000000000000000e+01 6.255925362929701805e+00
2.185169422160834074e+01 1.000000000000000000e+01 7.294468577019870281e+00
2.185169422160834074e+01 1.000000000000000000e+01 8.333011791110038757e+00
2.185169422160834074e+01 1.000000000000000000e+01 9.371555005200207233e+00
2.185169422160834074e+01 1.000000000000000000e+01 1.560281428974121809e+01
2.185169422160834074e+01 1.000000000000000000e+01 1.664135750383138657e+01
2.185169422160834074e+01 1.000000000000000000e+01 1.767990071792155504e+01
2.185169422160834074e+01 1.000000000000000000e+01 1.871844393201172352e+01
2.185169422160834074e+01 1.000000000000000000e+01 1.975698714610189199e+01
2.289077130643029889e+01 1.000000000000000000e+01 6.255925362929701805e+00
2.289077130643029889e+01 1.000000000000000000e+01 7.294468577019870281e+00
2.289077130643029889e+01 1.000000000000000000e+01 8.333011791110038757e+00
2.289077130643029889e+01 1.000000000000000000e+01 9.371555005200207233e+00
2.289077130643029889e+01 1.000000000000000000e+01 1.041009821929037571e+01
2.289077130643029889e+01 1.000000000000000000e+01 1.144864143338054419e+01
2.289077130643029889e+01 1.000000000000000000e+01 1.248718464747071266e+01
2.289077130643029889e+01 1.000000000000000000e+01 1.352572786156088114e+01
2.289077130643029889e+01 1.000000000000000000e+01 1.456427107565104961e+01
2.289077130643029889e+01 1.000000000000000000e+01 1.560281428974121809e+01
2.289077130643029889e+01 1.000000000000000000e+01 1.664135750383138657e+01
2.289077130643029889e+01 1.000000000000000000e+01 1.767990071792155504e+01
2.289077130643029889e+01 1.000000000000000000e+01 1.871844393201172352e+01
2.392984839125225704e+01 1.000000000000000000e+01 8.333011791110038757e+00
2.392984839125225704e+01 1.000000000000000000e+01 9.371555005200207233e+00
2.392984839125225704e+01 1.000000000000000000e+01 1.041009821929037571e+01
2.392984839125225704e+01 1.000000000000000000e+01 1.144864143338054419e+01
2.392984839125225704e+01 1.000000000000000000e+01 1.248718464747071266e+01
2.392984839125225704e+01 1.000000000000000000e+01 1.352572786156088114e+01
2.392984839125225704e+01 1.000000000000000000e+01 1.456427107565104961e+01
2.392984839125225704e+01 1.000000000000000000e+01 1.560281428974121809e+01
2.392984839125225704e+01 1.000000000000000000e+01 1.664135750383138657e+01
1.070152525169153934e+00 1.100000000000000000e+01 8.333011791110038757e+00
1.070152525169153934e+00 1.100000000000000000e+01 9.371555005200207233e+00
1.070152525169153934e+00 1.100000000000000000e+01 1.041009821929037571e+01
1.070152525169153934e+00 1.100000000000000000e+01 1.144864143338054419e+01
1.070152525169153934e+00 1.100000000000000000e+01 1.248718464747071266e+01
1.070152525169153934e+00 1.100000000000000000e+01 1.352572786156088114e+01
1.070152525169153934e+00 1.100000000000000000e+01 1.456427107565104961e+01
1.070152525169153934e+00 1.100000000000000000e+01 1.560281428974121809e+01
1.070152525169153934e+00 1.100000000000000000e+01 1.664135750383138657e+01
2.109229609991113197e+00 1.100000000000000000e+01 6.255925362929701805e+00
2.109229609991113197e+00 1.100000000000000000e+01 7.294468577019870281e+00
2.109229609991113197e+00 1.100000000000000000e+01 8.333011791110038757e+00
2.109229609991113197e+00 1.100000000000000000e+01 9.371555005200207233e+00
2.109229609991113197e+00 1.100000000000000000e+01 1.041009821929037571e+01
2.109229609991113197e+00 1.100000000000000000e+01 1.144864143338054419e+01
2.109229609991113197e+00 1.100000000000000000e+01 1.248718464747071266e+01
2.109229609991113197e+00 1.100000000000000000e+01 1.352572786156088114e+01
2.109229609991113197e+00 1.100000000000000000e+01 1.456427107565104961e+01
2.109229609991113197e+00 1.100000000000000000e+01 1.560281428974121809e+01
2.109229609991113197e+00 1.100000000000000000e+01 1.664135750383138657e+01
2.109229609991113197e+00 1.100000000000000000e+01 1.767990071792155504e+01
2.109229609991113197e+00 1.100000000000000000e+01 1.871844393201172352e+01
3.148306694813072681e+00 1.100000000000000000e+01 5.217382148839533329e+00
3.148306694813072681e+00 1.100000000000000000e+01 6.255925362929701805e+00
3.148306694813072681e+00 1.100000000000000000e+01 7.294468577019870281e+00
3.148306694813072681e+00 1.100000000000000000e+01 8.333011791110038757e+00
3.148306694813072681e+00 1.100000000000000000e+01 1.664135750383138657e+01
3.148306694813072681e+00 1.100000000000000000e+01 1.767990071792155504e+01
3.148306694813072681e+00 1.100000000000000000e+01 1.871844393201172352e+01
3.148306694813072681e+00 1.100000000000000000e+01 1.975698714610189199e+01
4.187383779635031722e+00 1.100000000000000000e+01 4.178838934749364853e+00
4.187383779635031722e+00 1.100000000000000000e+01 5.217382148839533329e+00
4.187383779635031722e+00 1.100000000000000000e+01 6.255925362929701805e+00
4.187383779635031722e+00 1.100000000000000000e+01 1.871844393201172352e+01
4.187383779635031722e+00 1.100000000000000000e+01 1.975698714610189199e+01
4.187383779635031722e+00 1.100000000000000000e+01 2.079553036019206047e+01
5.226460864456990763e+00 1.100000000000000000e+01 3.140295720659196377e+00
5.226460864456990763e+00 1.100000000000000000e+01 4.178838934749364853e+00
5.226460864456990763e+00 1.100000000000000000e+01 5.217382148839533329e+00
5.226460864456990763e+00 1.100000000000000000e+01 1.975698714610189199e+01
5.226460864456990763e+00 1.100000000000000000e+01 2.079553036019206047e+01
5.226460864456990763e+00 1.100000000000000000e+01 2.183407357428222895e+01
6.265537949278950691e+00 1.100000000000000000e+01 2.101752506569027901e+00
6.265537949278950691e+00 1.100000000000000000e+01 3.140295720659196377e+00
6.265537949278950691e+00 1.100000000000000000e+01 4.178838934749364853e+00
6.265537949278950691e+00 1.100000000000000000e+01 2.079553036019206047e+01
6.265537949278950691e+00 1.100000000000000000e+01 2.183407357428222895e+01
6.265537949278950691e+00 1.100000000000000000e+01 2.287261678837239742e+01
7.304615034100909732e+00 1.100000000000000000e+01 2.101752506569027901e+00
7.304615034100909732e+00 1.100000000000000000e+01 3.140295720659196377e+00
7.304615034100909732e+00 1.100000000000000000e+01 2.183407357428222895e+01
7.304615034100909732e+00 1.100000000000000000e+01 2.287261678837239742e+01
8.343692118922868772e+00 1.100000000000000000e+01 1.063209292478859425e+00
8.343692118922868772e+00 1.100000000000000000e+01 2.101752506569027901e+00
8.343692118922868772e+00 1.100000000000000000e+01 3.140295720659196377e+00
8.343692118922868772e+00 1.100000000000000000e+01 2.183407357428222895e+01
8.343692118922868772e+00 1.100000000000000000e+01 2.287261678837239742e+01
8.343692118922868772e+00 1.100000000000000000e+01 2.391116000246256590e+01
9.382769203744828701e+00 1.100000000000000000e+01 1.063209292478859425e+00
9.382769203744828701e+00 1.100000000000000000e+01 2.101752506569027901e+00
9.382769203744828701e+00 1.100000000000000000e+01 3.140295720659196377e+00
9.382769203744828701e+00 1.100000000000000000e+01 2.287261678837239742e+01
9.382769203744828701e+00 1.100000000000000000e+01 2.391116000246256590e+01
1.042184628856678685e+01 1.100000000000000000e+01 1.063209292478859425e+00
1.042184628856678685e+01 1.100000000000000000e+01 2.101752506569027901e+00
1.042184628856678685e+01 1.100000000000000000e+01 2.287261678837239742e+01
1.042184628856678685e+01 1.100000000000000000e+01 2.391116000246256590e+01
1.146092337338874678e+01 1.100000000000000000e+01 1.063209292478859425e+00
1.146092337338874678e+01 1.100000000000000000e+01 2.101752506569027901e+00
1.146092337338874678e+01 1.100000000000000000e+01 2.287261678837239742e+01
1.146092337338874678e+01 1.100000000000000000e+01 2.391116000246256590e+01
1.250000045821070671e+01 1.100000000000000000e+01 1.063209292478859425e+00
1.250000045821070671e+01 1.100000000000000000e+01 2.101752506569027901e+00
1.250000045821070671e+01 1.100000000000000000e+01 2.287261678837239742e+01
1.250000045821070671e+01 1.100000000000000000e+01 2.391116000246256590e+01
1.353907754303266486e+01 1.100000000000000000e+01 1.063209292478859425e+00
1.353907754303266486e+01 1.100000000000000000e+01 2.101752506569027901e+00
1.353907754303266486e+01 1.100000000000000000e+01 2.287261678837239742e+01
1.353907754303266486e+01 1.100000000000000000e+01 2.391116000246256590e+01
1.457815462785462479e+01 1.100000000000000000e+01 1.063209292478859425e+00
1.457815462785462479e+01 1.100000000000000000e+01 2.101752506569027901e+00
1.457815462785462479e+01 1.100000000000000000e+01 2.287261678837239742e+01
1.457815462785462479e+01 1.100000000000000000e+01 2.391116000246256590e+01
1.561723171267658294e+01 1.100000000000000000e+01 1.063209292478859425e+00
1.561723171267658294e+01 1.100000000000000000e+01 2.101752506569027901e+00
1.561723171267658294e+01 1.100000000000000000e+01 3.140295720659196377e+00
1.561723171267658294e+01 1.100000000000000000e+01 2.287261678837239742e+01
1.561723171267658294e+01 1.100000000000000000e+01 2.391116000246256590e+01
1.665630879749854287e+01 1.100000000000000000e+01 1.063209292478859425e+00
1.665630879749854287e+01 1.100000000000000000e+01 2.101752506569027901e+00
1.665630879749854287e+01 1.100000000000000000e+01 3.140295720659196377e+00
1.665630879749854287e+01 1.100000000000000000e+01 2.183407357428222895e+01
1.665630879749854287e+01 1.100000000000000000e+01 2.287261678837239742e+01
1.665630879749854287e+01 1.100000000000000000e+01 2.391116000246256590e+01
1.769538588232050103e+01 1.100000000000000000e+01 2.101752506569027901e+00
1.769538588232050103e+01 1.100000000000000000e+01 3.140295720659196377e+00
1.769538588232050103e+01 1.100000000000000000e+01 2.183407357428222895e+01
1.769538588232050103e+01 1.100000000000000000e+01 2.287261678837239742e+01
1.873446296714246273e+01 1.100000000000000000e+01 2.101752506569027901e+00
1.873446296714246273e+01 1.100000000000000000e+01 3.140295720659196377e+00
1.873446296714246273e+01 1.100000000000000000e+01 4.178838934749364853e+00
1.873446296714246273e+01 1.100000000000000000e+01 2.079553036019206047e+01
1.873446296714246273e+01 1.100000000000000000e+01 2.183407357428222895e+01
1.873446296714246273e+01 1.100000000000000000e+01 2.287261678837239742e+01
1.977354005196442088e+01 1.100000000000000000e+01 3.140295720659196377e+00
1.977354005196442088e+01 1.100000000000000000e+01 4.178838934749364853e+00
1.977354005196442088e+01 1.100000000000000000e+01 5.217382148839533329e+00
1.977354005196442088e+01 1.100000000000000000e+01 1.975698714610189199e+01
1.977354005196442088e+01 1.100000000000000000e+01 2.079553036019206047e+01
1.977354005196442088e+01 1.100000000000000000e+01 2.183407357428222895e+01
2.081261713678637904e+01 1.100000000000000000e+01 4.178838934749364853e+00
2.081261713678637904e+01 1.100000000000000000e+01 5.217382148839533329e+00
2.081261713678637904e+01 1.100000000000000000e+01 6.255925362929701805e+00
2.081261713678637904e+01 1.100000000000000000e+01 1.871844393201172352e+01
2.081261713678637904e+01 1.100000000000000000e+01 1.975698714610189199e+01
2.081261713678637904e+01 1.100000000000000000e+01 2.079553036019206047e+01
2.185169422160834074e+01 1.100000000000000000e+01 5.217382148839533329e+00
2.185169422160834074e+01 1.100000000000000000e+01 6.255925362929701805e+00
2.185169422160834074e+01 1.100000000000000000e+01 7.294468577019870281e+00
2.185169422160834074e+01 1.100000000000000000e+01 8.333011791110038757e+00
2.185169422160834074e+01 1.100000000000000000e+01 1.664135750383138657e+01
2.185169422160834074e+01 1.100000000000000000e+01 1.767990071792155504e+01
2.185169422160834074e+01 1.100000000000000000e+01 1.871844393201172352e+01
2.185169422160834074e+01 1.100000000000000000e+01 1.975698714610189199e+01
2.289077130643029889e+01 1.100000000000000000e+01 6.255925362929701805e+00
2.289077130643029889e+01 1.100000000000000000e+01 7.294468577019870281e+00
2.289077130643029889e+01 1.100000000000000000e+01 8.333011791110038757e+00
2.289077130643029889e+01 1.100000000000000000e+01 9.371555005200207233e+00
2.289077130643029889e+01 1.100000000000000000e+01 1.041009821929037571e+01
2.289077130643029889e+01 1.100000000000000000e+01 1.144864143338054419e+01
2.289077130643029889e+01 1.100000000000000000e+01 1.248718464747071266e+01
2.289077130643029889e+01 1.100000000000000000e+01 1.352572786156088114e+01
2.289077130643029889e+01 1.100000000000000000e+01 1.456427107565104961e+01
2.289077130643029889e+01 1.100000000000000000e+01 1.560281428974121809e+01
2.289077130643029889e+01 1.100000000000000000e+01 1.664135750383138657e+01
2.289077130643029889e+01 1.100000000000000000e+01 1.767990071792155504e+01
2.289077130643029889e+01 1.100000000000000000e+01 1.871844393201172352e+01
2.392984839125225704e+01 1.100000000000000000e+01 8.333011791110038757e+00
2.392984839125225704e+01 1.100000000000000000e+01 9.371555005200207233e+00
2.392984839125225704e+01 1.100000000000000000e+01 1.041009821929037571e+01
2.392984839125225704e+01 1.100000000000000000e+01 1.144864143338054419e+01
2.392984839125225704e+01 1.100000000000000000e+01 1.248718464747071266e+01
2.392984839125225704e+01 1.100000000000000000e+01 1.352572786156088114e+01
2.392984839125225704e+01 1.100000000000000000e+01 1.456427107565104961e+01
2.392984839125225704e+01 1.100000000000000000e+01 1.560281428974121809e+01
2.392984839125225704e+01 1.100000000000000000e+01 1.664135750383138657e+01
1.070152525169153934e+00 1.200000000000000000e+01 8.333011791110038757e+00
1.070152525169153934e+00 1.200000000000000000e+01 9.371555005200207233e+00
1.070152525169153934e+00 1.200000000000000000e+01 1.041009821929037571e+01
1.070152525169153934e+00 1.200000000000000000e+01 1.144864143338054419e+01
1.070152525169153934e+00 1.200000000000000000e+01 1.248718464747071266e+01
1.070152525169153934e+00 1.200000000000000000e+01 1.352572786156088114e+01
1.070152525169153934e+00 1.200000000000000000e+01 1.456427107565104961e+01
1.070152525169153934e+00 1.200000000000000000e+01 1.560281428974121809e+01
1.070152525169153934e+00 1.200000000000000000e+01 1.664135750383138657e+01
2.109229609991113197e+00 1.200000000000000000e+01 6.255925362929701805e+00
2.109229609991113197e+00 1.200000000000000000e+01 7.294468577019870281e+00
2.109229609991113197e+00 1.200000000000000000e+01 8.333011791110038757e+00
2.109229609991113197e+00 1.200000000000000000e+01 9.371555005200207233e+00
2.109229609991113197e+00 1.200000000000000000e+01 1.041009821929037571e+01
2.109229609991113197e+00 1.200000000000000000e+01 1.144864143338054419e+01
2.109229609991113197e+00 1.200000000000000000e+01 1.248718464747071266e+01
2.109229609991113197e+00 1.200000000000000000e+01 1.352572786156088114e+01
2.109229609991113197e+00 1.200000000000000000e+01 1.456427107565104961e+01
2.109229609991113197e+00 1.200000000000000000e+01 1.560281428974121809e+01
2.109229609991113197e+00 1.200000000000000000e+01 1.664135750383138657e+01
2.109229609991113197e+00 1.200000000000000000e+01 1.767990071792155504e+01
2.109229609991113197e+00 1.200000000000000000e+01 1.871844393201172352e+01
3.148306694813072681e+00 1.200000000000000000e+01 5.217382148839533329e+00
3.148306694813072681e+00 1.200000000000000000e+01 6.255925362929701805e+00
3.148306694813072681e+00 1.200000000000000000e+01 7.294468577019870281e+00
3.148306694813072681e+00 1.200000000000000000e+01 8.333011791110038757e+00
3.148306694813072681e+00 1.200000000000000000e+01 1.664135750383138657e+01
3.148306694813072681e+00 1.200000000000000000e+01 1.767990071792155504e+01
3.148306694813072681e+00 1.200000000000000000e+01 1.871844393201172352e+01
3.148306694813072681e+00 1.200000000000000000e+01 1.975698714610189199e+01
4.187383779635031722e+00 1.200000000000000000e+01 4.178838934749364853e+00
4.187383779635031722e+00 1.200000000000000000e+01 5.217382148839533329e+00
4.187383779635031722e+00 1.200000000000000000e+01 6.255925362929701805e+00
4.187383779635031722e+00 1.200000000000000000e+01 1.871844393201172352e+01
4.187383779635031722e+00 1.200000000000000000e+01 1.975698714610189199e+01
4.187383779635031722e+00 1.200000000000000000e+01 2.079553036019206047e+01
5.226460864456990763e+00 1.200000000000000000e+01 3.140295720659196377e+00
5.226460864456990763e+00 1.200000000000000000e+01 4.178838934749364853e+00
5.226460864456990763e+00 1.200000000000000000e+01 5.217382148839533329e+00
5.226460864456990763e+00 1.200000000000000000e+01 1.975698714610189199e+01
5.226460864456990763e+00 1.200000000000000000e+01 2.079553036019206047e+01
5.226460864456990763e+00 1.200000000000000000e+01 2.183407357428222895e+01
6.265537949278950691e+00 1.200000000000000000e+01 2.101752506569027901e+00
6.265537949278950691e+00 1.200000000000000000e+01 3.140295720659196377e+00
6.265537949278950691e+00 1.200000000000000000e+01 4.178838934749364853e+00
6.265537949278950691e+00 1.200000000000000000e+01 2.079553036019206047e+01
6.265537949278950691e+00 1.200000000000000000e+01 2.183407357428222895e+01
6.265537949278950691e+00 1.200000000000000000e+01 2.287261678837239742e+01
7.304615034100909732e+00 1.200000000000000000e+01 2.101752506569027901e+00
7.304615034100909732e+00 1.200000000000000000e+01 3.140295720659196377e+00
7.304615034100909732e+00 1.200000000000000000e+01 2.183407357428222895e+01
7.304615034100909732e+00 1.200000000000000000e+01 2.287261678837239742e+01
8.343692118922868772e+00 1.200000000000000000e+01 1.063209292478859425e+00
8.343692118922868772e+00 1.200000000000000000e+01 2.101752506569027901e+00
8.343692118922868772e+00 1.200000000000000000e+01 3.140295720659196377e+00
8.343692118922868772e+00 1.200000000000000000e+01 2.183407357428222895e+01
8.343692118922868772e+00 1.200000000000000000e+01 2.287261678837239742e+01
8.343692118922868772e+00 1.200000000000000000e+01 2.391116000246256590e+01
9.382769203744828701e+00 1.200000000000000000e+01 1.063209292478859425e+00
9.382769203744828701e+00 1.200000000000000000e+01 2.101752506569027901e+00
9.382769203744828701e+00 1.200000000000000000e+01 2.287261678837239742e+01
9.382769203744828701e+00 1.200000000000000000e+01 2.391116000246256590e+01
1.042184628856678685e+01 1.200000000000000000e+01 1.063209292478859425e+00
1.042184628856678685e+01 1.200000000000000000e+01 2.101752506569027901e+00
1.042184628856678685e+01 1.200000000000000000e+01 2.287261678837239742e+01
1.042184628856678685e+01 1.200000000000000000e+01 2.391116000246256590e+01
1.146092337338874678e+01 1.200000000000000000e+01 1.063209292478859425e+00
1.146092337338874678e+01 1.200000000000000000e+01 2.101752506569027901e+00
1.146092337338874678e+01 1.200000000000000000e+01 2.287261678837239742e+01
1.146092337338874678e+01 1.200000000000000000e+01 2.391116000246256590e+01
1.250000045821070671e+01 1.200000000000000000e+01 1.063209292478859425e+00
1.250000045821070671e+01 1.200000000000000000e+01 2.101752506569027901e+00
1.250000045821070671e+01 1.200000000000000000e+01 2.287261678837239742e+01
1.250000045821070671e+01 1.200000000000000000e+01 2.391116000246256590e+01
1.250000045821070671e+01 1.200000000000000000e+01 2.494970321655273438e+01
1.353907754303266486e+01 1.200000000000000000e+01 1.063209292478859425e+00
1.353907754303266486e+01 1.200000000000000000e+01 2.101752506569027901e+00
1.353907754303266486e+01 1.200000000000000000e+01 2.287261678837239742e+01
1.353907754303266486e+01 1.200000000000000000e+01 2.391116000246256590e+01
1.457815462785462479e+01 1.200000000000000000e+01 1.063209292478859425e+00
1.457815462785462479e+01 1.200000000000000000e+01 2.101752506569027901e+00
1.457815462785462479e+01 1.200000000000000000e+01 2.287261678837239742e+01
1.457815462785462479e+01 1.200000000000000000e+01 2.391116000246256590e+01
1.561723171267658294e+01 1.200000000000000000e+01 1.063209292478859425e+00
1.561723171267658294e+01 1.200000000000000000e+01 2.101752506569027901e+00
1.561723171267658294e+01 1.200000000000000000e+01 2.287261678837239742e+01
1.561723171267658294e+01 1.200000000000000000e+01 2.391116000246256590e+01
1.665630879749854287e+01 1.200000000000000000e+01 1.063209292478859425e+00
1.665630879749854287e+01 1.200000000000000000e+01 2.101752506569027901e+00
1.665630879749854287e+01 1.200000000000000000e+01 3.140295720659196377e+00
1.665630879749854287e+01 1.200000000000000000e+01 2.183407357428222895e+01
1.665630879749854287e+01 1.200000000000000000e+01 2.287261678837239742e+01
1.665630879749854287e+01 1.200000000000000000e+01 2.391116000246256590e+01
1.769538588232050103e+01 1.200000000000000000e+01 2.101752506569027901e+00
1.769538588232050103e+01 1.200000000000000000e+01 3.140295720659196377e+00
1.769538588232050103e+01 1.200000000000000000e+01 2.183407357428222895e+01
1.769538588232050103e+01 1.200000000000000000e+01 2.287261678837239742e+01
1.873446296714246273e+01 1.200000000000000000e+01 2.101752506569027901e+00
1.873446296714246273e+01 1.200000000000000000e+01 3.140295720659196377e+00
1.873446296714246273e+01 1.200000000000000000e+01 4.178838934749364853e+00
1.873446296714246273e+01 1.200000000000000000e+01 2.079553036019206047e+01
1.873446296714246273e+01 1.200000000000000000e+01 2.183407357428222895e+01
1.873446296714246273e+01 1.200000000000000000e+01 2.287261678837239742e+01
1.977354005196442088e+01 1.200000000000000000e+01 3.140295720659196377e+00
1.977354005196442088e+01 1.200000000000000000e+01 4.178838934749364853e+00
1.977354005196442088e+01 1.200000000000000000e+01 5.217382148839533329e+00
1.977354005196442088e+01 1.200000000000000000e+01 1.975698714610189199e+01
1.977354005196442088e+01 1.200000000000000000e+01 2.079553036019206047e+01
1.977354005196442088e+01 1.200000000000000000e+01 2.183407357428222895e+01
2.081261713678637904e+01 1.200000000000000000e+01 4.178838934749364853e+00
2.081261713678637904e+01 1.200000000000000000e+01 5.217382148839533329e+00
2.081261713678637904e+01 1.200000000000000000e+01 6.255925362929701805e+00
2.081261713678637904e+01 1.200000000000000000e+01 1.871844393201172352e+01
2.081261713678637904e+01 1.200000000000000000e+01 1.975698714610189199e+01
2.081261713678637904e+01 1.200000000000000000e+01 2.079553036019206047e+01
2.185169422160834074e+01 1.200000000000000000e+01 5.217382148839533329e+00
2.185169422160834074e+01 1.200000000000000000e+01 6.255925362929701805e+00
2.185169422160834074e+01 1.200000000000000000e+01 7.294468577019870281e+00
2.185169422160834074e+01 1.200000000000000000e+01 8.333011791110038757e+00
2.185169422160834074e+01 1.200000000000000000e+01 1.664135750383138657e+01
2.185169422160834074e+01 1.200000000000000000e+01 1.767990071792155504e+01
2.185169422160834074e+01 1.200000000000000000e+01 1.871844393201172352e+01
2.185169422160834074e+01 1.200000000000000000e+01 1.975698714610189199e+01
2.289077130643029889e+01 1.200000000000000000e+01 6.255925362929701805e+00
2.289077130643029889e+01 1.200000000000000000e+01 7.294468577019870281e+00
2.289077130643029889e+01 1.200000000000000000e+01 8.333011791110038757e+00
2.289077130643029889e+01 1.200000000000000000e+01 9.371555005200207233e+00
2.289077130643029889e+01 1.200000000000000000e+01 1.041009821929037571e+01
2.289077130643029889e+01 1.200000000000000000e+01 1.144864143338054419e+01
2.289077130643029889e+01 1.200000000000000000e+01 1.248718464747071266e+01
2.289077130643029889e+01 1.200000000000000000e+01 1.352572786156088114e+01
2.289077130643029889e+01 1.200000000000000000e+01 1.456427107565104961e+01
2.289077130643029889e+01 1.200000000000000000e+01 1.560281428974121809e+01
2.289077130643029889e+01 1.200000000000000000e+01 1.664135750383138657e+01
2.289077130643029889e+01 1.200000000000000000e+01 1.767990071792155504e+01
2.289077130643029889e+01 1.200000000000000000e+01 1.871844393201172352e+01
2.392984839125225704e+01 1.200000000000000000e+01 8.333011791110038757e+00
2.392984839125225704e+01 1.200000000000000000e+01 9.371555005200207233e+00
2.392984839125225704e+01 1.200000000000000000e+01 1.041009821929037571e+01
2.392984839125225704e+01 1.200000000000000000e+01 1.144864143338054419e+01
2.392984839125225704e+01 1.200000000000000000e+01 1.248718464747071266e+01
2.392984839125225704e+01 1.200000000000000000e+01 1.352572786156088114e+01
2.392984839125225704e+01 1.200000000000000000e+01 1.456427107565104961e+01
2.392984839125225704e+01 1.200000000000000000e+01 1.560281428974121809e+01
2.392984839125225704e+01 1.200000000000000000e+01 1.664135750383138657e+01
1.070152525169153934e+00 1.300000000000000000e+01 8.333011791110038757e+00
1.070152525169153934e+00 1.300000000000000000e+01 9.371555005200207233e+00
1.070152525169153934e+00 1.300000000000000000e+01 1.041009821929037571e+01
1.070152525169153934e+00 1.300000000000000000e+01 1.144864143338054419e+01
1.070152525169153934e+00 1.300000000000000000e+01 1.248718464747071266e+01
1.070152525169153934e+00 1.300000000000000000e+01 1.352572786156088114e+01
1.070152525169153934e+00 1.300000000000000000e+01 1.456427107565104961e+01
1.070152525169153934e+00 1.300000000000000000e+01 1.560281428974121809e+01
1.070152525169153934e+00 1.300000000000000000e+01 1.664135750383138657e+01
2.109229609991113197e+00 1.300000000000000000e+01 6.255925362929701805e+00
2.109229609991113197e+00 1.300000000000000000e+01 7.294468577019870281e+00
2.109229609991113197e+00 1.300000000000000000e+01 8.333011791110038757e+00
2.109229609991113197e+00 1.300000000000000000e+01 9.371555005200207233e+00
2.109229609991113197e+00 1.300000000000000000e+01 1.041009821929037571e+01
2.109229609991113197e+00 1.300000000000000000e+01 1.144864143338054419e+01
2.109229609991113197e+00 1.300000000000000000e+01 1.248718464747071266e+01
2.109229609991113197e+00 1.300000000000000000e+01 1.352572786156088114e+01
2.109229609991113197e+00 1.300000000000000000e+01 1.456427107565104961e+01
2.109229609991113197e+00 1.300000000000000000e+01 1.560281428974121809e+01
2.109229609991113197e+00 1.300000000000000000e+01 1.664135750383138657e+01
2.109229609991113197e+00 1.300000000000000000e+01 1.767990071792155504e+01
2.109229609991113197e+00 1.300000000000000000e+01 1.871844393201172352e+01
3.148306694813072681e+00 1.300000000000000000e+01 5.217382148839533329e+00
3.148306694813072681e+00 1.300000000000000000e+01 6.255925362929701805e+00
3.148306694813072681e+00 1.300000000000000000e+01 7.294468577019870281e+00
3.148306694813072681e+00 1.300000000000000000e+01 8.333011791110038757e+00
3.148306694813072681e+00 1.300000000000000000e+01 1.664135750383138657e+01
3.148306694813072681e+00 1.300000000000000000e+01 1.767990071792155504e+01
3.148306694813072681e+00 1.300000000000000000e+01 1.871844393201172352e+01
3.148306694813072681e+00 1.300000000000000000e+01 1.975698714610189199e+01
4.187383779635031722e+00 1.300000000000000000e+01 4.178838934749364853e+00
4.187383779635031722e+00 1.300000000000000000e+01 5.217382148839533329e+00
4.187383779635031722e+00 1.300000000000000000e+01 6.255925362929701805e+00
4.187383779635031722e+00 1.300000000000000000e+01 1.871844393201172352e+01
4.187383779635031722e+00 1.300000000000000000e+01 1.975698714610189199e+01
4.187383779635031722e+00 1.300000000000000000e+01 2.079553036019206047e+01
5.226460864456990763e+00 1.300000000000000000e+01 3.140295720659196377e+00
5.226460864456990763e+00 1.300000000000000000e+01 4.178838934749364853e+00
5.226460864456990763e+00 1.300000000000000000e+01 5.217382148839533329e+00
5.226460864456990763e+00 1.300000000000000000e+01 1.975698714610189199e+01
5.226460864456990763e+00 1.300000000000000000e+01 2.079553036019206047e+01
5.226460864456990763e+00 1.300000000000000000e+01 2.183407357428222895e+01
6.265537949278950691e+00 1.300000000000000000e+01 2.101752506569027901e+00
6.265537949278950691e+00 1.300000000000000000e+01 3.140295720659196377e+00
6.265537949278950691e+00 1.300000000000000000e+01 4.178838934749364853e+00
6.265537949278950691e+00 1.300000000000000000e+01 2.079553036019206047e+01
6.265537949278950691e+00 1.300000000000000000e+01 2.183407357428222895e+01
6.265537949278950691e+00 1.300000000000000000e+01 2.287261678837239742e+01
7.304615034100909732e+00 1.300000000000000000e+01 2.101752506569027901e+00
7.304615034100909732e+00 1.300000000000000000e+01 3.140295720659196377e+00
7.304615034100909732e+00 1.300000000000000000e+01 2.183407357428222895e+01
7.304615034100909732e+00 1.300000000000000000e+01 2.287261678837239742e+01
8.343692118922868772e+00 1.300000000000000000e+01 1.063209292478859425e+00
8.343692118922868772e+00 1.300000000000000000e+01 2.101752506569027901e+00
8.343692118922868772e+00 1.300000000000000000e+01 3.140295720659196377e+00
8.343692118922868772e+00 1.300000000000000000e+01 2.183407357428222895e+01
8.343692118922868772e+00 1.300000000000000000e+01 2.287261678837239742e+01
8.343692118922868772e+00 1.300000000000000000e+01 2.391116000246256590e+01
9.382769203744828701e+00 1.300000000000000000e+01 1.063209292478859425e+00
